41164,40016,511.,21588,1085.,3.,0.,25700,3764.,35.,0.,0.,0.,0.,0.,0.,0.,0.,0.,0.,0.,0.,0.,0.,0.,0.,0.,0.,0.,0.,0.,0.,0.,0.,0.,0.,0.,0.,0.,0.,0.,0.,0.,0.,0.,0.,0.,0.,0.,0.,0.,0.,0.,0.,0.,0.,0.,0.,0.,0.,0.,0.,0.,0.,0.,0.,0.,0.,0.,0.,0.,0.,0.,0.,0.,0.,0.,0.,0.,0.,0.,0.,0.,0.,0.,0.,0.,0.,0.,0.,0.,0.,0.,0.,0.,0.,0.,0.,0.,0.
3400.,3400.,3400.,3400.,3400.,3400.,3400.,3400.,3400.,3400.,264.,380.,284.,372.,340.,504.,3400.,3400.,3400.,3400.,3400.,3400.,3400.,3400.,3400.,132.,676.,560.,524.,612.,48.,488.,3400.,696.,3400.,3400.,3400.,308.,640.,492.,584.,628.,388.,524.,532.,632.,3400.,3400.,3400.,600.,508.,172.,820.,568.,576.,416.,520.,648.,3400.,536.,704.,724.,560.,3400.,3400.,3400.,3400.,584.,3400.,548.,3400.,3400.,3400.,3400.,3400.,3400.,3400.,3400.,3400.,3400.,3400.,3400.,3400.,3400.,3400.,3400.,3400.,3400.,3400.,3400.,3400.,3400.,3400.,3400.,3400.,3400.,3400.,3400.,3400.,3400.
3400.,3400.,3400.,3400.,3400.,3400.,3400.,3400.,3400.,3400.,380.,384.,352.,360.,400.,392.,408.,3400.,3400.,3400.,3400.,3400.,3400.,3400.,3400.,3400.,3400.,560.,540.,484.,492.,592.,516.,3400.,480.,568.,560.,536.,520.,3400.,540.,584.,572.,524.,528.,532.,492.,3400.,544.,560.,548.,540.,564.,568.,512.,492.,620.,724.,612.,480.,452.,3400.,536.,636.,724.,608.,496.,468.,3400.,3400.,680.,560.,3400.,3400.,3400.,3400.,3400.,3400.,3400.,3400.,3400.,3400.,3400.,3400.,3400.,3400.,3400.,3400.,3400.,3400.,3400.,3400.,3400.,3400.,3400.,3400.,3400.,3400.,3400.,3400.
3400.,3400.,3400.,3400.,3400.,3400.,3400.,3400.,400.,400.,388.,388.,384.,388.,392.,396.,420.,472.,3400.,3400.,3400.,3400.,3400.,3400.,3400.,3400.,3400.,3400.,472.,3400.,548.,568.,476.,388.,476.,568.,572.,568.,548.,512.,508.,3400.,560.,540.,524.,524.,3400.,528.,544.,548.,580.,596.,564.,532.,512.,468.,520.,596.,496.,388.,3400.,440.,480.,564.,644.,612.,532.,472.,460.,3400.,596.,3400.,3400.,3400.,3400.,3400.,3400.,3400.,3400.,3400.,3400.,3400.,3400.,3400.,3400.,3400.,3400.,3400.,3400.,3400.,3400.,3400.,3400.,3400.,3400.,3400.,3400.,3400.,3400.,3400.
3400.,3400.,3400.,3400.,3400.,3400.,3400.,3400.,420.,424.,404.,396.,408.,400.,388.,424.,448.,464.,488.,3400.,3400.,3400.,3400.,3400.,3400.,3400.,492.,488.,436.,484.,508.,3400.,3400.,420.,476.,520.,504.,528.,564.,516.,468.,472.,508.,544.,532.,520.,528.,548.,564.,540.,548.,556.,528.,528.,552.,480.,408.,432.,404.,384.,436.,456.,452.,484.,532.,556.,524.,464.,472.,508.,480.,424.,3400.,552.,3400.,648.,3400.,3400.,3400.,3400.,3400.,3400.,3400.,3400.,3400.,3400.,3400.,3400.,3400.,3400.,3400.,3400.,3400.,3400.,3400.,3400.,3400.,3400.,3400.,3400.
3400.,836.,760.,3400.,3400.,3400.,316.,340.,396.,400.,400.,408.,404.,392.,392.,452.,480.,460.,480.,3400.,3400.,3400.,3400.,540.,472.,412.,432.,452.,460.,500.,496.,476.,496.,496.,484.,492.,500.,524.,544.,512.,464.,448.,480.,532.,516.,468.,456.,504.,552.,520.,488.,480.,468.,508.,556.,504.,428.,436.,472.,496.,520.,516.,492.,484.,500.,508.,496.,456.,468.,448.,380.,352.,3400.,3400.,516.,3400.,3400.,3400.,3400.,3400.,3400.,3400.,3400.,3400.,3400.,3400.,3400.,3400.,3400.,3400.,3400.,3400.,3400.,3400.,3400.,3400.,3400.,3400.,3400.,3400.
3400.,3400.,3400.,3400.,3400.,320.,312.,312.,348.,372.,392.,420.,424.,408.,388.,456.,524.,504.,484.,500.,3400.,3400.,568.,588.,532.,488.,512.,500.,496.,508.,496.,508.,544.,536.,500.,500.,524.,544.,524.,496.,492.,496.,512.,516.,492.,460.,444.,480.,536.,524.,3400.,444.,400.,448.,532.,524.,476.,488.,532.,556.,576.,576.,516.,476.,504.,520.,508.,492.,452.,348.,296.,396.,444.,456.,476.,3400.,3400.,3400.,3400.,3400.,3400.,3400.,3400.,3400.,3400.,3400.,3400.,3400.,3400.,3400.,3400.,3400.,3400.,3400.,3400.,3400.,3400.,3400.,3400.,3400.
3400.,3400.,3400.,3400.,3400.,3400.,340.,3400.,368.,396.,420.,452.,476.,456.,412.,456.,544.,544.,504.,508.,548.,3400.,3400.,680.,644.,580.,608.,592.,532.,500.,508.,524.,512.,500.,524.,540.,552.,584.,568.,524.,520.,544.,544.,508.,504.,516.,524.,540.,556.,556.,544.,476.,3400.,432.,540.,564.,528.,520.,540.,544.,556.,564.,516.,460.,504.,568.,552.,496.,436.,368.,364.,440.,496.,520.,3400.,3400.,3400.,3400.,432.,3400.,3400.,3400.,3400.,3400.,3400.,3400.,3400.,3400.,3400.,3400.,3400.,3400.,3400.,3400.,3400.,3400.,3400.,3400.,3400.,3400.
3400.,3400.,520.,3400.,3400.,3400.,404.,3400.,404.,432.,456.,476.,496.,484.,448.,452.,484.,488.,468.,488.,524.,544.,596.,660.,640.,596.,616.,616.,560.,524.,488.,440.,468.,528.,564.,560.,564.,608.,600.,564.,544.,540.,524.,496.,3400.,548.,556.,560.,572.,580.,580.,548.,484.,484.,540.,588.,588.,576.,576.,584.,584.,580.,580.,552.,552.,608.,576.,472.,3400.,484.,480.,436.,512.,620.,600.,548.,3400.,492.,456.,3400.,3400.,3400.,3400.,3400.,3400.,3400.,3400.,3400.,3400.,3400.,3400.,3400.,3400.,3400.,3400.,3400.,3400.,3400.,3400.,3400.
3400.,3400.,3400.,332.,380.,380.,404.,404.,400.,424.,448.,472.,496.,480.,444.,412.,412.,432.,448.,492.,540.,552.,580.,612.,576.,540.,552.,552.,572.,608.,472.,336.,456.,576.,592.,568.,548.,572.,556.,532.,528.,528.,516.,492.,508.,532.,524.,540.,564.,568.,580.,588.,556.,492.,488.,556.,588.,584.,592.,616.,608.,588.,600.,600.,580.,572.,536.,500.,524.,568.,536.,480.,584.,704.,620.,552.,592.,3400.,516.,532.,3400.,3400.,3400.,3400.,3400.,3400.,3400.,3400.,3400.,3400.,3400.,3400.,3400.,3400.,3400.,3400.,3400.,3400.,3400.,3400.
3400.,3400.,3400.,3400.,368.,360.,356.,356.,368.,388.,440.,484.,476.,452.,436.,424.,444.,464.,460.,492.,532.,520.,544.,596.,548.,464.,464.,508.,592.,656.,540.,440.,504.,564.,584.,580.,552.,536.,480.,440.,492.,548.,536.,508.,504.,496.,488.,520.,536.,532.,548.,560.,552.,488.,448.,500.,540.,532.,556.,580.,564.,560.,560.,544.,524.,480.,464.,532.,572.,544.,488.,460.,528.,596.,552.,532.,560.,540.,3400.,500.,580.,3400.,3400.,3400.,3400.,3400.,3400.,3400.,3400.,3400.,3400.,3400.,3400.,3400.,3400.,3400.,860.,3400.,3400.,3400.
3400.,3400.,3400.,3400.,3400.,364.,356.,352.,364.,384.,468.,512.,468.,440.,448.,484.,516.,500.,468.,480.,504.,488.,512.,568.,548.,476.,468.,520.,584.,624.,604.,504.,424.,492.,560.,556.,540.,524.,468.,420.,500.,584.,556.,548.,564.,520.,488.,492.,484.,488.,496.,508.,540.,528.,492.,508.,524.,512.,536.,556.,552.,556.,552.,528.,504.,472.,476.,528.,540.,484.,428.,404.,436.,480.,520.,568.,580.,528.,472.,3400.,536.,3400.,3400.,3400.,3400.,3400.,3400.,3400.,3400.,3400.,3400.,3400.,3400.,3400.,3400.,3400.,3400.,3400.,3400.,3400.
3400.,3400.,3400.,3400.,3400.,3400.,352.,368.,364.,400.,480.,500.,460.,416.,428.,488.,508.,500.,476.,472.,500.,508.,512.,572.,624.,568.,500.,508.,568.,624.,612.,452.,320.,436.,528.,536.,576.,552.,492.,460.,516.,580.,576.,596.,628.,572.,520.,500.,472.,484.,492.,520.,560.,556.,536.,536.,528.,520.,540.,556.,564.,568.,556.,536.,500.,484.,488.,492.,496.,516.,504.,456.,456.,476.,508.,564.,572.,520.,500.,3400.,560.,3400.,3400.,3400.,3400.,3400.,272.,3400.,3400.,3400.,3400.,3400.,3400.,228.,3400.,3400.,3400.,3400.,3400.,3400.
224.,3400.,3400.,3400.,3400.,3400.,3400.,376.,380.,416.,448.,444.,428.,384.,396.,448.,468.,504.,536.,540.,544.,532.,524.,592.,656.,576.,492.,504.,552.,600.,548.,436.,420.,500.,532.,588.,660.,580.,476.,480.,536.,560.,572.,588.,584.,560.,536.,516.,512.,528.,528.,548.,572.,552.,540.,532.,508.,520.,552.,548.,552.,564.,548.,512.,472.,476.,492.,488.,500.,576.,616.,548.,500.,500.,496.,516.,512.,504.,532.,576.,3400.,520.,3400.,3400.,3400.,3400.,3400.,3400.,3400.,3400.,3400.,3400.,3400.,3400.,3400.,3400.,3400.,3400.,3400.,3400.
192.,272.,272.,3400.,208.,3400.,3400.,3400.,3400.,472.,456.,416.,416.,408.,428.,484.,508.,752.,1036.,860.,616.,568.,564.,604.,620.,576.,544.,536.,552.,580.,508.,3400.,504.,576.,584.,620.,640.,580.,516.,540.,596.,584.,560.,560.,548.,536.,536.,528.,536.,556.,560.,544.,540.,548.,556.,536.,500.,500.,536.,548.,552.,568.,556.,524.,572.,648.,612.,560.,536.,556.,616.,596.,560.,548.,540.,528.,516.,544.,580.,572.,3400.,548.,3400.,3400.,3400.,3400.,3400.,3400.,3400.,3400.,3400.,3400.,3400.,3400.,3400.,3400.,3400.,3400.,3400.,3400.
168.,248.,276.,272.,296.,404.,3400.,3400.,3400.,496.,476.,444.,432.,432.,476.,540.,556.,980.,3400.,1044.,624.,588.,576.,612.,644.,640.,604.,568.,580.,616.,564.,508.,540.,592.,604.,588.,572.,576.,580.,596.,616.,600.,572.,576.,568.,548.,560.,556.,532.,540.,576.,564.,532.,544.,560.,548.,520.,504.,536.,580.,588.,584.,576.,568.,684.,804.,700.,596.,556.,524.,560.,576.,564.,564.,548.,500.,496.,568.,600.,576.,604.,636.,3400.,3400.,3400.,3400.,3400.,3400.,3400.,3400.,3400.,3400.,3400.,3400.,3400.,3400.,3400.,3400.,3400.,3400.
200.,208.,220.,240.,272.,332.,412.,432.,3400.,3400.,3400.,432.,420.,416.,456.,496.,520.,744.,952.,740.,552.,540.,560.,624.,636.,600.,560.,544.,560.,572.,556.,536.,556.,580.,572.,564.,552.,528.,508.,520.,552.,564.,568.,576.,560.,560.,584.,568.,520.,528.,588.,596.,560.,544.,544.,556.,556.,548.,580.,612.,596.,572.,564.,556.,604.,640.,588.,556.,540.,508.,516.,532.,532.,544.,520.,448.,432.,508.,556.,560.,588.,616.,3400.,3400.,3400.,3400.,3400.,3400.,3400.,3400.,3400.,3400.,3400.,3400.,3400.,3400.,3400.,3400.,3400.,3400.
240.,236.,232.,224.,224.,240.,276.,312.,320.,324.,3400.,3400.,3400.,448.,488.,472.,484.,504.,496.,508.,512.,504.,564.,624.,588.,540.,520.,524.,528.,528.,520.,516.,552.,564.,544.,568.,568.,492.,412.,436.,512.,536.,532.,532.,536.,544.,560.,552.,528.,528.,556.,568.,568.,560.,556.,568.,584.,584.,596.,588.,556.,556.,544.,532.,532.,512.,512.,536.,520.,492.,500.,524.,540.,532.,520.,532.,532.,500.,484.,496.,516.,556.,560.,3400.,3400.,3400.,3400.,3400.,3400.,3400.,3400.,3400.,3400.,3400.,3400.,3400.,3400.,3400.,3400.,3400.
224.,248.,224.,244.,244.,244.,244.,256.,288.,320.,360.,408.,456.,3400.,560.,512.,472.,480.,496.,524.,508.,472.,516.,576.,560.,524.,524.,548.,548.,548.,540.,524.,556.,564.,536.,552.,572.,536.,488.,492.,540.,556.,532.,484.,472.,516.,544.,540.,536.,532.,528.,532.,548.,564.,568.,572.,576.,584.,576.,552.,544.,560.,552.,540.,552.,548.,544.,548.,528.,512.,528.,544.,556.,544.,540.,628.,680.,592.,524.,496.,492.,556.,560.,3400.,3400.,3400.,3400.,3400.,3400.,3400.,3400.,3400.,3400.,3400.,3400.,3400.,3400.,3400.,3400.,3400.
300.,240.,236.,232.,248.,264.,256.,248.,256.,272.,312.,380.,448.,488.,512.,488.,436.,444.,496.,516.,476.,440.,476.,532.,520.,492.,508.,544.,556.,564.,540.,508.,524.,556.,560.,548.,552.,576.,588.,572.,564.,572.,556.,472.,436.,512.,560.,540.,544.,552.,548.,544.,548.,556.,564.,552.,548.,560.,556.,544.,552.,564.,560.,556.,552.,548.,548.,556.,548.,540.,540.,540.,548.,548.,556.,612.,648.,628.,608.,532.,484.,544.,548.,3400.,3400.,3400.,3400.,3400.,3400.,3400.,3400.,3400.,3400.,3400.,3400.,3400.,3400.,3400.,3400.,3400.
100.,200.,208.,224.,248.,264.,264.,264.,256.,248.,264.,316.,364.,396.,432.,448.,424.,428.,476.,500.,464.,452.,500.,532.,492.,484.,532.,548.,544.,544.,528.,516.,528.,568.,572.,528.,524.,576.,600.,588.,576.,564.,560.,528.,508.,540.,564.,552.,552.,564.,564.,556.,556.,556.,552.,544.,540.,544.,548.,548.,556.,560.,560.,560.,548.,536.,544.,556.,556.,560.,556.,536.,524.,532.,544.,572.,580.,588.,596.,528.,468.,512.,528.,508.,3400.,3400.,3400.,3400.,3400.,3400.,3400.,3400.,3400.,3400.,3400.,3400.,3400.,3400.,3400.,3400.
148.,172.,196.,232.,256.,256.,268.,284.,280.,284.,284.,288.,308.,348.,408.,440.,444.,448.,464.,492.,496.,496.,536.,556.,520.,516.,584.,588.,548.,552.,556.,560.,572.,592.,564.,504.,520.,572.,584.,584.,580.,572.,568.,580.,572.,568.,568.,568.,568.,564.,564.,568.,560.,552.,552.,556.,560.,560.,560.,560.,556.,560.,568.,568.,556.,548.,560.,572.,568.,584.,584.,556.,528.,520.,548.,592.,584.,564.,576.,552.,512.,536.,552.,544.,3400.,3400.,3400.,3400.,3400.,3400.,3400.,3400.,3400.,3400.,3400.,3400.,3400.,3400.,3400.,3400.
192.,164.,164.,204.,216.,220.,244.,272.,284.,296.,316.,308.,296.,312.,356.,404.,456.,468.,440.,468.,496.,476.,508.,560.,556.,556.,600.,612.,588.,600.,604.,592.,584.,584.,572.,552.,548.,564.,572.,564.,564.,564.,572.,576.,568.,568.,572.,572.,568.,564.,572.,576.,560.,548.,552.,568.,576.,568.,568.,564.,560.,564.,576.,580.,568.,564.,576.,584.,568.,572.,580.,564.,540.,532.,568.,604.,576.,548.,560.,556.,528.,536.,564.,572.,3400.,3400.,3400.,3400.,3400.,3400.,3400.,3400.,3400.,3400.,3400.,3400.,3400.,3400.,3400.,3400.
404.,236.,200.,208.,196.,196.,208.,232.,252.,268.,308.,324.,324.,316.,316.,360.,432.,444.,420.,456.,480.,3400.,460.,532.,568.,588.,596.,600.,608.,616.,608.,584.,564.,564.,588.,596.,568.,552.,560.,556.,544.,552.,568.,568.,556.,556.,564.,564.,560.,564.,572.,572.,564.,556.,560.,572.,572.,564.,568.,568.,564.,564.,572.,580.,572.,568.,572.,580.,568.,560.,560.,536.,512.,528.,548.,556.,544.,536.,532.,516.,488.,492.,540.,564.,492.,3400.,3400.,3400.,3400.,3400.,3400.,3400.,3400.,3400.,3400.,3400.,3400.,3400.,3400.,3400.
580.,320.,308.,308.,268.,244.,228.,220.,228.,248.,280.,312.,340.,344.,280.,236.,312.,372.,388.,436.,476.,476.,480.,516.,552.,576.,580.,580.,580.,576.,580.,568.,552.,564.,588.,596.,568.,556.,564.,564.,552.,552.,568.,568.,552.,552.,560.,560.,560.,568.,572.,568.,572.,568.,564.,568.,572.,564.,564.,564.,564.,560.,560.,560.,564.,560.,556.,560.,564.,560.,552.,524.,492.,516.,540.,540.,552.,552.,532.,500.,476.,488.,520.,524.,464.,3400.,3400.,3400.,3400.,3400.,3400.,3400.,3400.,936.,3400.,3400.,3400.,3400.,3400.,3400.
292.,312.,340.,376.,348.,320.,296.,252.,216.,212.,236.,268.,300.,324.,248.,160.,252.,344.,360.,400.,452.,492.,536.,572.,556.,548.,580.,588.,560.,548.,576.,592.,572.,568.,580.,580.,568.,564.,568.,576.,568.,564.,572.,572.,564.,564.,572.,568.,568.,576.,572.,572.,580.,572.,564.,568.,572.,564.,560.,560.,564.,564.,552.,548.,552.,556.,548.,544.,548.,540.,540.,528.,508.,524.,556.,572.,576.,568.,544.,548.,572.,544.,500.,480.,472.,432.,3400.,3400.,3400.,3400.,3400.,3400.,3400.,3400.,3400.,3400.,3400.,3400.,3400.,3400.
316.,300.,328.,372.,376.,348.,324.,304.,256.,220.,240.,264.,272.,284.,280.,272.,336.,396.,388.,384.,412.,448.,540.,616.,576.,548.,588.,588.,556.,556.,608.,624.,588.,572.,576.,572.,568.,568.,572.,576.,572.,576.,580.,576.,576.,584.,584.,576.,576.,576.,576.,576.,580.,576.,572.,568.,568.,564.,560.,560.,560.,552.,540.,536.,540.,532.,528.,532.,528.,512.,504.,504.,504.,516.,544.,560.,564.,572.,560.,608.,676.,604.,536.,524.,484.,436.,352.,296.,3400.,3400.,3400.,3400.,3400.,592.,3400.,3400.,3400.,3400.,48.,3400.
268.,304.,332.,368.,368.,332.,320.,336.,384.,420.,372.,316.,312.,308.,308.,316.,364.,428.,420.,396.,400.,412.,468.,524.,520.,532.,552.,556.,564.,584.,616.,612.,580.,568.,576.,572.,568.,572.,576.,572.,568.,572.,576.,576.,576.,580.,584.,576.,572.,572.,572.,576.,576.,576.,568.,568.,568.,564.,560.,560.,552.,532.,508.,500.,500.,492.,492.,492.,484.,468.,456.,464.,480.,504.,528.,540.,544.,556.,560.,600.,656.,616.,576.,568.,492.,3400.,380.,3400.,3400.,3400.,3400.,3400.,3400.,3400.,3400.,3400.,3400.,3400.,3400.,3400.
296.,304.,336.,368.,348.,324.,332.,328.,432.,576.,488.,252.,156.,284.,364.,324.,328.,372.,396.,400.,408.,416.,424.,436.,456.,492.,516.,540.,572.,584.,580.,592.,584.,568.,572.,572.,564.,572.,580.,572.,564.,568.,572.,568.,560.,564.,572.,568.,564.,560.,564.,572.,576.,572.,564.,564.,568.,564.,556.,552.,536.,496.,464.,456.,452.,448.,448.,440.,436.,428.,428.,444.,472.,504.,532.,548.,556.,548.,552.,588.,624.,580.,524.,520.,528.,520.,3400.,3400.,3400.,208.,260.,3400.,3400.,3400.,3400.,3400.,3400.,3400.,3400.,3400.
320.,316.,340.,344.,332.,336.,336.,320.,380.,492.,476.,188.,3400.,212.,456.,444.,396.,364.,372.,384.,400.,424.,440.,436.,432.,452.,480.,512.,544.,544.,536.,580.,588.,564.,568.,572.,564.,568.,572.,568.,564.,560.,560.,556.,548.,552.,560.,556.,548.,556.,564.,568.,572.,572.,572.,572.,568.,560.,556.,544.,504.,456.,432.,428.,428.,424.,424.,416.,412.,416.,424.,444.,476.,500.,516.,544.,564.,556.,552.,564.,560.,524.,492.,492.,540.,592.,3400.,3400.,3400.,3400.,3400.,3400.,3400.,3400.,3400.,3400.,3400.,3400.,3400.,3400.
304.,288.,352.,348.,348.,356.,352.,348.,368.,408.,436.,324.,208.,340.,496.,512.,472.,440.,424.,392.,384.,400.,424.,440.,436.,432.,444.,468.,508.,528.,536.,576.,584.,564.,568.,568.,560.,564.,564.,560.,556.,552.,544.,540.,548.,548.,548.,544.,532.,544.,560.,556.,564.,568.,576.,580.,568.,560.,568.,544.,480.,428.,420.,420.,424.,420.,416.,416.,412.,416.,428.,440.,468.,492.,500.,528.,552.,560.,572.,544.,504.,524.,544.,540.,548.,580.,568.,548.,3400.,3400.,3400.,3400.,3400.,3400.,3400.,3400.,3400.,3400.,3400.,3400.
380.,304.,344.,348.,352.,368.,376.,380.,380.,380.,388.,412.,444.,464.,472.,476.,472.,476.,464.,420.,396.,396.,416.,436.,440.,440.,440.,452.,476.,500.,524.,556.,568.,564.,560.,552.,548.,552.,544.,540.,544.,540.,524.,524.,540.,540.,532.,524.,512.,524.,552.,556.,560.,568.,572.,576.,568.,564.,572.,548.,472.,424.,416.,420.,420.,420.,416.,416.,416.,420.,428.,432.,456.,496.,512.,528.,544.,548.,576.,576.,548.,572.,612.,588.,548.,600.,628.,560.,3400.,3400.,3400.,3400.,3400.,84.,3400.,3400.,3400.,3400.,3400.,3400.
296.,288.,324.,320.,332.,300.,264.,324.,388.,376.,372.,388.,428.,444.,440.,448.,460.,472.,472.,452.,436.,444.,448.,424.,428.,444.,448.,456.,460.,464.,476.,512.,544.,560.,556.,540.,532.,536.,528.,516.,520.,516.,500.,496.,508.,508.,496.,496.,496.,520.,548.,556.,560.,572.,572.,568.,560.,564.,580.,556.,484.,432.,420.,420.,416.,412.,416.,416.,416.,416.,420.,428.,452.,500.,528.,536.,548.,552.,556.,568.,568.,600.,632.,576.,524.,648.,748.,3400.,3400.,3400.,3400.,3400.,3400.,3400.,3400.,3400.,3400.,3400.,3400.,3400.
304.,332.,320.,316.,328.,240.,3400.,256.,412.,452.,420.,388.,416.,444.,444.,444.,456.,472.,484.,508.,516.,516.,476.,432.,464.,528.,572.,548.,512.,488.,476.,500.,540.,568.,572.,556.,532.,528.,520.,500.,496.,492.,480.,484.,496.,492.,484.,484.,496.,520.,548.,548.,556.,576.,580.,568.,560.,568.,584.,568.,500.,444.,424.,420.,416.,416.,412.,420.,420.,412.,412.,424.,452.,496.,524.,536.,548.,556.,552.,540.,544.,568.,580.,544.,532.,596.,3400.,3400.,3400.,3400.,3400.,3400.,3400.,3400.,3400.,3400.,3400.,3400.,3400.,3400.
272.,312.,316.,332.,352.,308.,252.,292.,412.,508.,456.,388.,412.,444.,448.,444.,468.,476.,484.,532.,576.,568.,520.,500.,532.,628.,704.,644.,580.,552.,536.,548.,556.,568.,584.,584.,548.,524.,508.,488.,484.,484.,484.,496.,504.,500.,488.,488.,500.,524.,548.,548.,556.,576.,588.,576.,560.,568.,584.,572.,512.,444.,420.,424.,424.,420.,420.,420.,420.,416.,412.,420.,452.,492.,524.,540.,552.,560.,564.,552.,540.,544.,548.,548.,572.,564.,500.,3400.,3400.,3400.,3400.,3400.,3400.,3400.,3400.,3400.,3400.,3400.,3400.,3400.
320.,288.,300.,340.,364.,364.,356.,344.,376.,444.,436.,400.,396.,412.,428.,448.,460.,468.,476.,520.,572.,568.,536.,512.,520.,576.,620.,596.,580.,592.,620.,620.,576.,556.,572.,592.,580.,532.,492.,480.,484.,480.,484.,496.,496.,492.,484.,492.,508.,532.,552.,552.,556.,572.,584.,572.,564.,568.,584.,580.,524.,448.,416.,424.,424.,420.,420.,424.,416.,416.,416.,420.,444.,488.,524.,548.,576.,596.,580.,552.,532.,532.,548.,552.,576.,576.,3400.,500.,3400.,3400.,3400.,3400.,3400.,3400.,3400.,3400.,3400.,3400.,3400.,3400.
312.,284.,300.,332.,336.,324.,324.,352.,384.,404.,420.,412.,400.,404.,424.,436.,432.,448.,480.,508.,540.,548.,520.,488.,492.,516.,524.,528.,552.,572.,620.,640.,588.,552.,564.,588.,600.,560.,504.,480.,480.,480.,484.,496.,492.,484.,484.,500.,512.,536.,560.,556.,556.,572.,576.,568.,564.,568.,580.,580.,536.,460.,420.,424.,428.,424.,420.,420.,416.,416.,416.,416.,436.,476.,516.,540.,584.,616.,576.,528.,508.,512.,540.,540.,552.,552.,500.,3400.,3400.,3400.,3400.,3400.,3400.,3400.,3400.,3400.,3400.,3400.,3400.,3400.
332.,308.,320.,324.,312.,304.,316.,364.,408.,412.,400.,404.,416.,432.,444.,440.,432.,456.,488.,508.,524.,524.,512.,508.,516.,524.,528.,544.,564.,560.,576.,612.,592.,560.,564.,576.,588.,576.,536.,500.,488.,484.,492.,500.,496.,484.,484.,500.,512.,532.,556.,560.,560.,568.,572.,568.,564.,564.,572.,576.,536.,464.,424.,424.,432.,428.,420.,420.,416.,420.,420.,416.,432.,472.,508.,528.,564.,592.,572.,536.,524.,532.,552.,560.,572.,560.,508.,468.,3400.,3400.,3400.,3400.,3400.,3400.,3400.,3400.,3400.,3400.,3400.,3400.
248.,316.,324.,316.,312.,316.,336.,372.,400.,396.,384.,388.,404.,416.,440.,452.,464.,476.,480.,496.,512.,512.,516.,532.,544.,528.,532.,556.,580.,592.,600.,616.,600.,568.,564.,564.,564.,572.,552.,516.,500.,496.,496.,492.,488.,488.,488.,492.,504.,520.,548.,560.,556.,564.,576.,576.,564.,560.,576.,584.,536.,460.,424.,424.,428.,424.,424.,420.,416.,420.,424.,420.,436.,480.,508.,532.,560.,608.,636.,588.,556.,560.,560.,576.,592.,584.,524.,440.,3400.,3400.,3400.,3400.,3400.,3400.,3400.,3400.,3400.,3400.,3400.,3400.
412.,316.,304.,300.,308.,316.,328.,360.,388.,396.,388.,388.,384.,380.,416.,448.,468.,472.,468.,484.,504.,516.,524.,540.,560.,560.,552.,552.,572.,612.,640.,644.,616.,576.,568.,568.,560.,564.,556.,520.,504.,504.,496.,484.,484.,488.,492.,500.,504.,512.,544.,556.,548.,560.,580.,584.,572.,564.,588.,604.,556.,468.,424.,420.,424.,424.,420.,416.,416.,416.,420.,424.,444.,480.,512.,536.,560.,632.,692.,620.,568.,588.,580.,556.,560.,568.,504.,412.,3400.,3400.,3400.,3400.,3400.,3400.,3400.,3400.,3400.,3400.,3400.,3400.
356.,320.,304.,280.,292.,308.,312.,340.,372.,392.,388.,384.,384.,388.,420.,456.,472.,460.,456.,476.,500.,516.,520.,528.,548.,564.,564.,560.,576.,612.,636.,652.,624.,580.,572.,568.,556.,564.,560.,524.,500.,500.,492.,484.,488.,488.,492.,504.,504.,516.,544.,560.,552.,564.,580.,584.,576.,572.,596.,616.,568.,484.,432.,424.,424.,420.,420.,420.,420.,416.,416.,420.,440.,472.,504.,528.,548.,592.,624.,580.,552.,596.,608.,612.,632.,576.,476.,3400.,3400.,3400.,3400.,3400.,3400.,3400.,3400.,3400.,3400.,3400.,3400.,3400.
216.,320.,320.,288.,288.,308.,332.,356.,368.,380.,380.,380.,400.,420.,444.,480.,488.,448.,444.,484.,508.,520.,524.,524.,544.,568.,568.,572.,588.,604.,624.,652.,632.,592.,576.,580.,576.,576.,572.,528.,496.,492.,492.,492.,500.,496.,492.,500.,504.,516.,552.,564.,552.,564.,580.,580.,572.,572.,592.,612.,572.,488.,436.,428.,424.,428.,424.,428.,428.,424.,420.,420.,432.,460.,496.,532.,552.,552.,548.,540.,536.,564.,584.,664.,736.,576.,420.,464.,3400.,3400.,3400.,3400.,3400.,3400.,3400.,3400.,3400.,3400.,3400.,3400.
316.,300.,308.,304.,300.,312.,348.,376.,380.,380.,376.,372.,404.,428.,440.,480.,488.,444.,452.,500.,512.,512.,520.,532.,560.,588.,588.,588.,596.,600.,616.,644.,632.,592.,580.,596.,608.,600.,584.,536.,508.,500.,500.,500.,504.,504.,500.,500.,504.,516.,552.,564.,548.,560.,584.,584.,572.,572.,588.,608.,572.,488.,436.,424.,428.,428.,428.,432.,432.,428.,428.,424.,428.,452.,492.,536.,556.,556.,544.,540.,540.,548.,544.,584.,628.,504.,352.,3400.,3400.,876.,3400.,3400.,3400.,3400.,3400.,3400.,3400.,3400.,3400.,3400.
236.,280.,292.,292.,296.,312.,348.,368.,368.,372.,372.,372.,388.,400.,412.,448.,464.,452.,456.,488.,496.,492.,504.,532.,560.,580.,588.,588.,588.,596.,604.,628.,624.,588.,580.,588.,588.,588.,588.,544.,512.,504.,504.,504.,500.,504.,500.,500.,508.,516.,548.,560.,544.,560.,584.,588.,576.,568.,580.,604.,576.,500.,436.,424.,424.,424.,428.,432.,428.,424.,424.,420.,420.,448.,492.,536.,548.,556.,560.,548.,548.,548.,536.,504.,500.,468.,380.,3400.,3400.,3400.,3400.,3400.,3400.,3400.,3400.,3400.,3400.,3400.,3400.,3400.
224.,272.,284.,280.,280.,304.,344.,360.,348.,348.,368.,380.,380.,384.,400.,432.,456.,464.,468.,480.,492.,496.,496.,516.,544.,548.,556.,576.,592.,604.,604.,616.,620.,592.,576.,580.,568.,576.,600.,556.,512.,504.,500.,504.,504.,500.,500.,500.,512.,516.,536.,552.,548.,560.,580.,580.,576.,568.,576.,600.,584.,516.,444.,424.,424.,424.,428.,432.,428.,420.,416.,412.,420.,448.,496.,532.,556.,564.,564.,560.,568.,564.,536.,496.,484.,480.,452.,3400.,3400.,3400.,3400.,3400.,3400.,3400.,3400.,3400.,3400.,3400.,3400.,3400.
280.,288.,292.,284.,284.,304.,348.,372.,356.,352.,368.,384.,388.,392.,412.,444.,456.,460.,468.,484.,500.,512.,504.,512.,524.,508.,524.,560.,588.,624.,612.,616.,640.,604.,572.,584.,572.,576.,596.,560.,512.,504.,500.,504.,512.,508.,500.,504.,516.,520.,528.,544.,552.,556.,568.,580.,580.,576.,580.,604.,604.,536.,456.,424.,424.,424.,424.,424.,424.,416.,412.,408.,416.,456.,500.,528.,552.,564.,552.,572.,592.,552.,484.,488.,528.,520.,476.,3400.,3400.,3400.,3400.,3400.,3400.,3400.,3400.,3400.,3400.,3400.,3400.,3400.
360.,300.,292.,288.,288.,308.,352.,372.,376.,376.,384.,384.,392.,404.,416.,440.,452.,456.,460.,468.,492.,512.,524.,536.,536.,516.,524.,536.,552.,596.,600.,620.,664.,616.,572.,584.,572.,568.,580.,552.,512.,500.,496.,504.,512.,508.,500.,500.,508.,512.,520.,544.,556.,560.,568.,580.,580.,580.,584.,600.,608.,560.,484.,440.,428.,424.,424.,432.,436.,440.,444.,448.,456.,488.,524.,532.,548.,560.,552.,564.,596.,544.,456.,484.,544.,488.,428.,3400.,3400.,3400.,3400.,3400.,3400.,3400.,3400.,3400.,3400.,3400.,3400.,3400.
272.,296.,300.,300.,304.,332.,356.,356.,368.,384.,384.,376.,384.,396.,404.,428.,448.,464.,468.,468.,480.,496.,508.,532.,556.,564.,548.,536.,548.,580.,584.,620.,664.,616.,580.,588.,572.,560.,572.,552.,508.,492.,496.,504.,512.,508.,496.,496.,496.,500.,516.,548.,564.,560.,572.,584.,580.,580.,580.,584.,588.,572.,532.,492.,472.,468.,472.,484.,496.,508.,520.,520.,528.,540.,556.,544.,548.,568.,552.,540.,580.,588.,532.,508.,504.,412.,388.,532.,3400.,3400.,3400.,3400.,3400.,3400.,3400.,3400.,3400.,3400.,3400.,3400.
196.,300.,316.,328.,348.,372.,372.,352.,360.,368.,364.,372.,388.,392.,404.,436.,460.,468.,480.,488.,488.,484.,488.,512.,544.,572.,568.,556.,576.,604.,600.,636.,664.,620.,580.,584.,592.,596.,584.,556.,512.,496.,500.,504.,504.,496.,492.,496.,496.,496.,512.,540.,560.,556.,568.,584.,584.,580.,580.,576.,572.,572.,560.,552.,544.,544.,540.,540.,548.,560.,564.,564.,560.,560.,568.,552.,544.,552.,536.,528.,568.,604.,592.,560.,540.,476.,3400.,3400.,3400.,3400.,3400.,3400.,3400.,3400.,3400.,3400.,3400.,3400.,3400.,3400.
260.,264.,288.,328.,356.,364.,364.,360.,352.,348.,352.,360.,380.,396.,420.,464.,480.,468.,480.,500.,496.,492.,492.,504.,520.,552.,572.,572.,584.,600.,604.,644.,668.,620.,580.,580.,612.,628.,600.,568.,528.,504.,504.,500.,496.,500.,508.,524.,520.,512.,524.,556.,576.,564.,564.,580.,580.,580.,584.,580.,572.,568.,568.,568.,572.,572.,568.,564.,560.,568.,576.,572.,560.,552.,556.,560.,548.,536.,520.,532.,564.,572.,572.,592.,600.,548.,3400.,548.,3400.,3400.,3400.,3400.,3400.,3400.,3400.,3400.,3400.,3400.,3400.,3400.
236.,232.,256.,300.,320.,320.,332.,344.,336.,340.,352.,352.,364.,384.,404.,444.,464.,464.,480.,484.,484.,492.,492.,496.,508.,536.,560.,556.,556.,568.,584.,620.,648.,620.,580.,576.,592.,596.,588.,576.,536.,508.,520.,536.,556.,572.,584.,588.,576.,548.,552.,576.,584.,572.,568.,580.,584.,584.,580.,580.,576.,576.,576.,568.,568.,568.,564.,560.,556.,564.,568.,568.,560.,548.,548.,556.,556.,544.,524.,524.,532.,532.,540.,568.,576.,524.,504.,3400.,3400.,3400.,3400.,3400.,3400.,3400.,3400.,48.,3400.,3400.,3400.,3400.
280.,240.,252.,280.,308.,316.,324.,328.,332.,344.,352.,352.,356.,356.,360.,392.,424.,436.,448.,452.,472.,496.,512.,512.,512.,528.,548.,536.,516.,536.,564.,596.,628.,612.,580.,576.,572.,568.,580.,584.,556.,532.,548.,588.,628.,640.,632.,616.,596.,568.,560.,564.,564.,564.,576.,580.,580.,580.,580.,576.,572.,572.,572.,568.,568.,564.,556.,564.,568.,568.,568.,564.,560.,548.,544.,552.,552.,548.,536.,516.,540.,572.,552.,524.,508.,472.,488.,3400.,3400.,3400.,3400.,3400.,3400.,3400.,3400.,3400.,3400.,3400.,3400.,3400.
188.,252.,256.,284.,320.,328.,320.,316.,324.,336.,348.,352.,348.,344.,360.,388.,404.,412.,428.,468.,512.,532.,548.,548.,524.,544.,588.,568.,516.,528.,556.,588.,640.,628.,584.,576.,572.,572.,576.,580.,568.,556.,560.,576.,596.,600.,592.,584.,576.,568.,560.,556.,560.,568.,572.,572.,568.,564.,572.,576.,576.,580.,588.,584.,588.,580.,572.,584.,592.,580.,568.,564.,540.,520.,528.,560.,568.,544.,528.,512.,560.,624.,576.,532.,512.,464.,460.,428.,3400.,3400.,3400.,3400.,3400.,3400.,3400.,3400.,3400.,3400.,3400.,3400.
264.,292.,284.,276.,304.,332.,332.,324.,324.,328.,340.,352.,360.,352.,368.,412.,448.,412.,396.,504.,572.,572.,584.,580.,564.,592.,636.,612.,548.,532.,544.,584.,664.,648.,592.,584.,576.,580.,580.,572.,568.,568.,564.,560.,568.,568.,568.,572.,568.,568.,568.,568.,572.,576.,576.,584.,596.,592.,592.,604.,604.,604.,612.,608.,608.,600.,592.,588.,576.,560.,556.,548.,520.,492.,516.,568.,584.,540.,504.,500.,520.,548.,536.,532.,532.,508.,464.,3400.,324.,3400.,3400.,3400.,3400.,3400.,3400.,3400.,3400.,3400.,3400.,3400.
228.,308.,324.,304.,224.,188.,280.,348.,340.,340.,352.,372.,380.,368.,372.,396.,424.,396.,3400.,508.,580.,576.,604.,612.,612.,608.,616.,600.,560.,536.,536.,572.,632.,636.,604.,592.,580.,588.,588.,576.,576.,580.,576.,572.,572.,572.,572.,576.,580.,588.,592.,596.,604.,608.,604.,616.,640.,632.,624.,624.,608.,592.,588.,588.,584.,580.,576.,564.,540.,532.,532.,528.,520.,512.,512.,532.,544.,508.,484.,484.,484.,476.,472.,476.,496.,508.,452.,3400.,3400.,3400.,3400.,3400.,3400.,3400.,3400.,3400.,3400.,3400.,3400.,3400.
3400.,3400.,364.,356.,180.,3400.,224.,352.,344.,348.,352.,376.,400.,400.,416.,408.,392.,440.,508.,584.,588.,556.,588.,620.,616.,604.,584.,560.,544.,536.,548.,576.,616.,632.,604.,584.,580.,584.,580.,580.,584.,580.,580.,588.,588.,588.,592.,604.,620.,628.,628.,628.,632.,632.,616.,612.,612.,608.,600.,592.,588.,588.,572.,556.,556.,548.,540.,532.,516.,516.,520.,512.,512.,512.,492.,484.,484.,472.,468.,468.,468.,456.,440.,432.,444.,472.,440.,372.,3400.,3400.,244.,3400.,3400.,3400.,3400.,3400.,3400.,3400.,3400.,3400.
644.,3400.,340.,3400.,284.,232.,304.,392.,412.,3400.,3400.,3400.,396.,444.,476.,500.,504.,548.,608.,608.,572.,540.,548.,564.,556.,564.,552.,528.,528.,540.,564.,584.,624.,640.,592.,564.,572.,576.,580.,588.,584.,580.,596.,616.,628.,632.,632.,636.,640.,624.,612.,612.,612.,608.,596.,584.,568.,564.,568.,572.,588.,596.,564.,536.,536.,524.,512.,508.,492.,488.,492.,488.,480.,476.,472.,468.,456.,452.,456.,452.,452.,444.,424.,420.,416.,436.,440.,440.,480.,3400.,3400.,3400.,3400.,3400.,3400.,3400.,3400.,3400.,3400.,3400.
3400.,3400.,3400.,3400.,3400.,3400.,3400.,3400.,3400.,3400.,3400.,3400.,400.,444.,464.,528.,572.,568.,596.,576.,520.,512.,508.,484.,460.,484.,532.,540.,532.,540.,556.,572.,608.,620.,568.,552.,580.,592.,596.,592.,580.,588.,608.,616.,616.,624.,620.,604.,588.,572.,564.,572.,576.,572.,564.,556.,544.,544.,556.,560.,552.,532.,524.,508.,500.,500.,492.,480.,456.,448.,456.,452.,444.,448.,456.,452.,440.,428.,424.,420.,424.,420.,408.,412.,408.,392.,392.,444.,488.,456.,3400.,3400.,3400.,3400.,3400.,3400.,3400.,3400.,3400.,3400.
3400.,3400.,3400.,3400.,3400.,3400.,3400.,3400.,3400.,3400.,3400.,3400.,440.,412.,412.,484.,524.,520.,576.,616.,544.,504.,508.,468.,428.,472.,552.,548.,520.,532.,532.,564.,616.,604.,556.,552.,588.,608.,596.,580.,572.,580.,592.,576.,568.,580.,572.,552.,536.,528.,528.,536.,544.,540.,532.,528.,524.,536.,548.,532.,500.,488.,500.,476.,460.,484.,476.,452.,428.,416.,428.,436.,428.,428.,428.,420.,424.,416.,396.,384.,388.,396.,388.,388.,380.,348.,340.,372.,392.,368.,344.,372.,380.,3400.,3400.,3400.,3400.,3400.,3400.,3400.
3400.,3400.,3400.,3400.,3400.,3400.,3400.,728.,3400.,3400.,468.,3400.,448.,424.,412.,432.,460.,476.,536.,596.,536.,476.,520.,528.,500.,516.,564.,564.,524.,540.,544.,564.,608.,588.,560.,552.,568.,584.,580.,576.,568.,572.,568.,548.,548.,552.,540.,524.,508.,500.,508.,516.,516.,508.,504.,512.,516.,520.,516.,496.,476.,464.,448.,444.,456.,460.,448.,436.,424.,408.,412.,424.,420.,412.,404.,400.,412.,408.,380.,368.,380.,396.,384.,364.,348.,328.,324.,340.,348.,340.,332.,332.,344.,352.,3400.,3400.,3400.,3400.,3400.,3400.
3400.,3400.,3400.,3400.,3400.,3400.,3400.,3400.,3400.,3400.,3400.,3400.,452.,472.,448.,436.,448.,472.,516.,528.,484.,492.,564.,588.,564.,532.,560.,624.,608.,596.,616.,636.,624.,584.,568.,560.,560.,580.,588.,580.,568.,568.,556.,536.,532.,524.,512.,504.,488.,484.,496.,512.,508.,496.,488.,488.,496.,488.,468.,468.,476.,440.,396.,428.,460.,440.,420.,416.,424.,416.,408.,412.,408.,400.,396.,396.,404.,400.,376.,368.,388.,408.,388.,356.,336.,328.,336.,364.,376.,368.,360.,336.,316.,316.,324.,404.,3400.,3400.,3400.,3400.
3400.,3400.,3400.,3400.,3400.,3400.,3400.,3400.,3400.,472.,476.,468.,456.,440.,404.,432.,504.,528.,548.,544.,544.,616.,640.,596.,528.,464.,520.,632.,660.,644.,660.,688.,648.,580.,564.,564.,576.,592.,592.,572.,556.,552.,548.,528.,508.,496.,492.,488.,476.,476.,484.,496.,492.,488.,480.,468.,472.,468.,460.,468.,476.,460.,436.,444.,452.,432.,408.,408.,416.,412.,408.,404.,396.,392.,384.,380.,392.,392.,380.,380.,396.,408.,388.,360.,340.,336.,356.,376.,384.,384.,376.,356.,336.,324.,320.,348.,384.,384.,3400.,3400.
3400.,3400.,3400.,3400.,3400.,3400.,3400.,3400.,3400.,552.,564.,524.,3400.,428.,392.,452.,564.,600.,580.,560.,568.,624.,648.,588.,472.,3400.,500.,612.,660.,652.,628.,628.,608.,568.,544.,544.,576.,592.,580.,560.,540.,524.,516.,508.,488.,476.,472.,468.,468.,468.,468.,472.,468.,464.,460.,452.,448.,452.,456.,464.,464.,456.,444.,436.,432.,412.,392.,396.,400.,396.,392.,392.,392.,384.,372.,368.,376.,380.,380.,384.,388.,380.,372.,360.,344.,344.,364.,368.,360.,360.,364.,360.,340.,312.,304.,328.,332.,316.,332.,312.
3400.,3400.,3400.,3400.,3400.,3400.,3400.,3400.,3400.,608.,580.,504.,500.,508.,496.,532.,576.,580.,564.,524.,496.,528.,600.,592.,480.,424.,484.,580.,636.,632.,592.,572.,588.,572.,544.,548.,584.,612.,588.,544.,520.,484.,456.,468.,472.,464.,460.,460.,460.,456.,452.,448.,440.,436.,436.,432.,420.,420.,428.,436.,440.,432.,416.,412.,412.,392.,368.,376.,384.,380.,380.,380.,372.,368.,364.,360.,364.,368.,364.,368.,368.,356.,356.,348.,332.,332.,344.,348.,340.,328.,332.,324.,304.,272.,264.,284.,284.,264.,288.,356.
3400.,3400.,3400.,3400.,3400.,3400.,3400.,3400.,3400.,3400.,3400.,3400.,3400.,512.,536.,544.,528.,508.,504.,496.,492.,508.,560.,584.,524.,456.,460.,544.,612.,608.,580.,584.,612.,588.,560.,568.,596.,620.,576.,500.,472.,440.,400.,424.,444.,444.,444.,444.,436.,424.,416.,416.,412.,404.,412.,412.,400.,396.,408.,420.,424.,416.,408.,400.,388.,380.,368.,372.,372.,364.,368.,364.,352.,352.,356.,352.,356.,352.,344.,348.,344.,332.,320.,316.,312.,300.,300.,316.,324.,304.,288.,284.,272.,260.,256.,244.,232.,240.,264.,256.
3400.,3400.,3400.,3400.,3400.,3400.,3400.,3400.,3400.,3400.,3400.,428.,420.,444.,500.,500.,484.,480.,492.,512.,524.,524.,516.,552.,588.,548.,500.,516.,560.,580.,548.,552.,592.,564.,528.,524.,552.,568.,512.,444.,428.,412.,392.,396.,408.,412.,408.,396.,396.,392.,388.,392.,392.,384.,384.,392.,388.,380.,388.,404.,408.,404.,396.,380.,364.,360.,360.,364.,364.,356.,352.,352.,344.,340.,332.,324.,324.,324.,320.,316.,312.,296.,288.,288.,292.,280.,268.,284.,256.,276.,264.,268.,272.,268.,264.,240.,224.,232.,216.,332.
3400.,3400.,3400.,3400.,3400.,3400.,3400.,3400.,3400.,3400.,3400.,3400.,3400.,3400.,456.,444.,448.,476.,504.,476.,432.,472.,480.,504.,592.,596.,532.,476.,492.,548.,536.,528.,544.,508.,488.,492.,512.,500.,440.,396.,396.,396.,388.,380.,376.,384.,380.,368.,368.,372.,372.,380.,384.,372.,364.,368.,364.,356.,356.,372.,388.,380.,376.,364.,348.,344.,340.,340.,344.,336.,328.,328.,320.,316.,304.,288.,284.,292.,284.,284.,280.,272.,272.,272.,272.,260.,252.,260.,264.,252.,248.,256.,260.,256.,248.,252.,256.,240.,220.,200.
3400.,3400.,3400.,3400.,3400.,3400.,3400.,3400.,3400.,3400.,3400.,3400.,452.,500.,488.,436.,464.,508.,524.,448.,360.,456.,524.,520.,568.,560.,540.,520.,504.,548.,580.,564.,540.,516.,508.,532.,532.,464.,396.,380.,384.,384.,372.,364.,364.,368.,368.,364.,356.,352.,356.,352.,356.,360.,352.,344.,340.,340.,336.,344.,364.,364.,352.,348.,340.,336.,328.,320.,316.,312.,308.,300.,292.,292.,284.,272.,268.,276.,272.,268.,264.,264.,272.,272.,264.,256.,252.,256.,252.,248.,244.,248.,244.,236.,236.,256.,264.,240.,224.,228.
3400.,3400.,3400.,3400.,3400.,3400.,3400.,3400.,3400.,3400.,592.,540.,3400.,628.,584.,496.,540.,584.,564.,504.,476.,560.,600.,584.,592.,560.,564.,588.,564.,556.,592.,600.,576.,548.,532.,584.,572.,448.,372.,372.,384.,376.,364.,356.,352.,352.,352.,344.,340.,344.,340.,332.,332.,344.,348.,336.,320.,328.,336.,336.,344.,340.,336.,324.,312.,308.,308.,300.,296.,296.,292.,284.,280.,280.,272.,264.,268.,276.,272.,264.,260.,260.,272.,276.,268.,268.,272.,272.,268.,256.,256.,256.,240.,236.,248.,260.,256.,232.,244.,444.
3400.,3400.,3400.,3400.,3400.,3400.,3400.,3400.,3400.,3400.,3400.,3400.,516.,600.,600.,564.,600.,600.,560.,504.,516.,584.,576.,588.,632.,612.,588.,580.,592.,596.,608.,600.,560.,520.,520.,584.,552.,420.,356.,360.,372.,364.,348.,340.,340.,336.,332.,328.,328.,332.,332.,332.,332.,332.,336.,332.,316.,312.,320.,320.,312.,304.,304.,296.,288.,284.,284.,280.,280.,280.,280.,272.,268.,268.,260.,260.,264.,272.,268.,260.,260.,264.,276.,276.,264.,264.,272.,280.,280.,268.,264.,264.,252.,248.,260.,268.,264.,248.,256.,264.
3400.,3400.,3400.,3400.,3400.,3400.,3400.,3400.,3400.,3400.,3400.,3400.,500.,504.,520.,544.,576.,560.,528.,460.,3400.,512.,3400.,576.,624.,580.,560.,552.,576.,628.,632.,596.,540.,500.,504.,528.,476.,388.,348.,340.,352.,348.,332.,324.,324.,324.,324.,320.,324.,328.,324.,320.,320.,316.,308.,304.,300.,292.,288.,292.,288.,276.,272.,272.,272.,272.,268.,264.,268.,272.,268.,264.,264.,260.,256.,256.,264.,268.,264.,260.,256.,260.,264.,268.,260.,256.,256.,260.,272.,276.,264.,260.,260.,256.,264.,272.,272.,260.,268.,356.
3400.,3400.,3400.,3400.,3400.,3400.,3400.,3400.,3400.,3400.,3400.,3400.,3400.,552.,3400.,488.,496.,516.,532.,504.,496.,548.,588.,612.,568.,496.,520.,592.,636.,636.,620.,596.,568.,552.,528.,484.,396.,340.,328.,328.,336.,336.,328.,320.,320.,320.,316.,308.,308.,312.,300.,292.,292.,288.,280.,276.,272.,272.,272.,272.,272.,264.,260.,264.,272.,268.,260.,260.,268.,272.,272.,268.,264.,264.,260.,260.,264.,264.,268.,260.,252.,256.,260.,268.,272.,272.,260.,248.,260.,272.,268.,268.,276.,268.,256.,272.,276.,256.,276.,348.
3400.,3400.,3400.,3400.,3400.,3400.,3400.,3400.,3400.,3400.,3400.,488.,584.,604.,572.,508.,472.,488.,516.,524.,536.,588.,596.,520.,460.,456.,508.,636.,712.,660.,596.,564.,552.,560.,544.,456.,344.,304.,316.,320.,320.,316.,308.,308.,308.,308.,300.,284.,280.,280.,272.,268.,272.,272.,264.,264.,264.,268.,268.,268.,264.,264.,264.,268.,272.,268.,260.,260.,268.,276.,272.,264.,264.,260.,260.,260.,260.,260.,268.,264.,256.,256.,264.,276.,288.,284.,272.,260.,264.,268.,268.,272.,284.,268.,252.,264.,260.,240.,272.,484.
3400.,3400.,3400.,3400.,3400.,3400.,3400.,3400.,3400.,3400.,3400.,3400.,3400.,580.,588.,536.,504.,472.,444.,452.,492.,540.,488.,388.,392.,440.,476.,560.,620.,600.,552.,516.,504.,508.,492.,396.,300.,284.,296.,300.,296.,288.,276.,276.,276.,280.,272.,264.,260.,256.,256.,260.,268.,268.,264.,260.,260.,268.,272.,272.,268.,264.,264.,264.,264.,264.,260.,260.,264.,268.,264.,264.,260.,256.,260.,268.,268.,264.,264.,264.,256.,256.,260.,268.,268.,268.,272.,268.,264.,264.,260.,256.,256.,248.,252.,248.,224.,200.,224.,272.
3400.,3400.,3400.,3400.,3400.,3400.,3400.,3400.,3400.,612.,3400.,3400.,3400.,604.,600.,544.,592.,604.,500.,452.,492.,508.,456.,436.,472.,480.,468.,484.,496.,508.,512.,500.,500.,492.,436.,328.,260.,264.,272.,272.,268.,264.,260.,260.,264.,264.,264.,264.,260.,260.,260.,264.,268.,268.,264.,260.,260.,268.,272.,276.,272.,264.,264.,264.,260.,264.,264.,260.,260.,260.,264.,268.,264.,260.,264.,272.,272.,268.,268.,264.,260.,264.,264.,260.,252.,252.,260.,260.,260.,268.,264.,248.,248.,260.,268.,248.,216.,204.,212.,172.
3400.,3400.,3400.,3400.,3400.,3400.,3400.,3400.,3400.,3400.,3400.,448.,3400.,588.,608.,576.,668.,768.,636.,500.,492.,492.,480.,504.,552.,540.,508.,500.,484.,484.,508.,516.,512.,484.,396.,288.,244.,252.,260.,260.,260.,256.,260.,260.,264.,268.,268.,264.,268.,268.,264.,264.,268.,268.,264.,260.,268.,272.,272.,276.,272.,268.,268.,268.,268.,268.,264.,260.,260.,264.,272.,276.,272.,264.,264.,264.,268.,276.,284.,276.,272.,276.,276.,268.,260.,256.,260.,264.,264.,276.,280.,268.,252.,276.,280.,264.,244.,252.,256.,3400.
3400.,3400.,3400.,3400.,3400.,3400.,3400.,3400.,3400.,3400.,3400.,3400.,616.,520.,588.,576.,568.,660.,636.,528.,488.,504.,528.,540.,548.,540.,520.,492.,500.,532.,536.,544.,536.,480.,376.,280.,248.,252.,260.,264.,260.,260.,268.,268.,268.,272.,272.,272.,272.,268.,264.,268.,272.,268.,264.,264.,272.,276.,272.,272.,268.,272.,276.,272.,268.,268.,268.,272.,276.,276.,276.,280.,268.,264.,264.,264.,264.,280.,288.,280.,276.,284.,276.,272.,272.,272.,276.,280.,280.,284.,292.,280.,264.,264.,268.,272.,260.,252.,268.,3400.
3400.,1060.,3400.,3400.,3400.,3400.,3400.,3400.,3400.,3400.,3400.,3400.,3400.,3400.,544.,512.,3400.,540.,604.,560.,540.,552.,576.,584.,552.,544.,536.,488.,544.,620.,592.,568.,556.,484.,376.,288.,252.,256.,264.,268.,264.,264.,268.,264.,268.,276.,276.,276.,276.,268.,264.,272.,276.,276.,268.,264.,268.,268.,268.,272.,272.,280.,288.,280.,272.,264.,264.,272.,288.,288.,280.,276.,268.,264.,268.,272.,268.,272.,280.,272.,272.,280.,276.,272.,272.,280.,284.,276.,268.,276.,280.,272.,264.,268.,276.,280.,280.,264.,276.,376.
3400.,3400.,3400.,3400.,3400.,3400.,3400.,3400.,3400.,3400.,3400.,980.,3400.,3400.,504.,532.,520.,572.,600.,592.,584.,552.,552.,580.,572.,584.,592.,568.,616.,676.,616.,572.,556.,476.,376.,296.,256.,256.,268.,272.,264.,264.,268.,264.,284.,276.,276.,272.,276.,268.,268.,276.,280.,284.,284.,272.,268.,268.,268.,276.,280.,280.,288.,292.,280.,264.,260.,268.,284.,296.,284.,276.,276.,268.,272.,280.,272.,268.,272.,272.,272.,280.,284.,280.,284.,284.,276.,260.,252.,260.,260.,268.,272.,272.,284.,296.,300.,280.,276.,3400.
3400.,3400.,3400.,3400.,3400.,3400.,3400.,3400.,3400.,3400.,668.,3400.,3400.,3400.,520.,596.,580.,556.,544.,560.,544.,496.,508.,556.,592.,604.,604.,600.,600.,596.,552.,528.,528.,460.,372.,300.,260.,252.,264.,272.,268.,264.,268.,268.,268.,272.,272.,268.,272.,272.,268.,276.,284.,292.,296.,284.,276.,276.,268.,268.,280.,280.,288.,292.,284.,272.,264.,260.,276.,292.,284.,284.,284.,276.,276.,280.,280.,272.,268.,272.,272.,272.,280.,288.,288.,284.,276.,260.,252.,256.,252.,260.,268.,256.,268.,292.,280.,236.,472.,3400.
3400.,3400.,3400.,3400.,3400.,3400.,3400.,3400.,3400.,3400.,3400.,3400.,3400.,496.,3400.,3400.,496.,476.,476.,480.,460.,460.,500.,532.,584.,604.,572.,568.,556.,508.,464.,476.,496.,460.,400.,328.,272.,256.,264.,264.,264.,264.,268.,268.,264.,268.,268.,268.,272.,268.,260.,272.,276.,280.,288.,280.,276.,276.,268.,260.,272.,284.,288.,284.,280.,272.,268.,260.,268.,280.,280.,280.,280.,276.,272.,276.,276.,268.,264.,268.,268.,260.,264.,276.,280.,280.,268.,260.,260.,252.,248.,252.,272.,280.,280.,268.,244.,3400.,3400.,3400.
3400.,3400.,3400.,3400.,3400.,3400.,3400.,3400.,3400.,3400.,3400.,3400.,3400.,3400.,456.,3400.,424.,444.,444.,460.,456.,488.,500.,484.,524.,544.,508.,532.,560.,516.,392.,348.,452.,504.,452.,360.,284.,260.,264.,264.,260.,264.,272.,268.,268.,272.,272.,268.,272.,264.,256.,264.,268.,268.,276.,272.,268.,268.,264.,260.,268.,284.,292.,284.,272.,272.,268.,264.,264.,272.,276.,272.,268.,264.,264.,272.,272.,272.,268.,272.,264.,252.,252.,264.,264.,256.,256.,260.,268.,264.,264.,260.,292.,344.,308.,276.,276.,3400.,3400.,3400.
3400.,3400.,3400.,3400.,3400.,3400.,3400.,3400.,3400.,3400.,3400.,3400.,3400.,3400.,3400.,328.,3400.,472.,472.,540.,576.,584.,536.,464.,472.,476.,484.,536.,548.,528.,364.,3400.,396.,516.,460.,372.,292.,260.,264.,268.,268.,268.,272.,272.,272.,268.,268.,268.,268.,264.,256.,260.,264.,268.,276.,280.,268.,268.,268.,264.,268.,276.,288.,284.,276.,276.,276.,268.,264.,268.,272.,268.,264.,260.,260.,264.,272.,276.,276.,272.,264.,256.,260.,268.,260.,256.,272.,276.,280.,300.,308.,288.,284.,340.,372.,3400.,3400.,3400.,3400.,3400.
3400.,3400.,3400.,3400.,3400.,3400.,3400.,3400.,3400.,3400.,3400.,3400.,3400.,3400.,3400.,3400.,488.,492.,520.,616.,652.,648.,576.,496.,484.,488.,516.,544.,544.,536.,460.,372.,436.,496.,452.,380.,308.,264.,260.,268.,272.,272.,272.,272.,268.,268.,268.,272.,268.,264.,260.,264.,268.,272.,280.,284.,276.,272.,272.,268.,268.,272.,280.,280.,272.,272.,276.,272.,268.,268.,272.,272.,264.,260.,260.,260.,268.,272.,272.,268.,268.,268.,268.,280.,280.,276.,276.,256.,272.,312.,316.,268.,3400.,3400.,3400.,3400.,3400.,3400.,3400.,3400.
3400.,3400.,3400.,3400.,3400.,3400.,3400.,3400.,3400.,3400.,3400.,3400.,3400.,3400.,3400.,3400.,3400.,3400.,516.,596.,612.,596.,560.,532.,516.,516.,552.,568.,560.,576.,568.,548.,540.,528.,496.,416.,332.,276.,260.,268.,272.,276.,276.,272.,268.,272.,276.,276.,272.,272.,268.,272.,280.,276.,276.,276.,272.,276.,276.,272.,272.,276.,280.,280.,272.,268.,272.,276.,268.,272.,276.,272.,268.,264.,264.,268.,268.,268.,272.,276.,276.,280.,284.,288.,276.,260.,248.,240.,288.,336.,3400.,3400.,3400.,3400.,3400.,3400.,3400.,3400.,3400.,3400.
3400.,3400.,3400.,3400.,3400.,3400.,3400.,3400.,3400.,3400.,3400.,3400.,3400.,3400.,3400.,3400.,3400.,488.,496.,536.,532.,500.,512.,544.,560.,576.,608.,596.,592.,612.,600.,596.,596.,588.,552.,460.,364.,296.,268.,272.,276.,280.,280.,276.,272.,272.,280.,276.,272.,280.,276.,276.,280.,276.,272.,268.,272.,276.,276.,272.,272.,276.,284.,284.,276.,272.,276.,276.,272.,272.,276.,272.,268.,268.,272.,280.,280.,272.,280.,296.,296.,304.,312.,308.,296.,288.,312.,336.,3400.,3400.,3400.,3400.,3400.,3400.,3400.,3400.,3400.,3400.,3400.,3400.
3400.,3400.,3400.,3400.,3400.,3400.,3400.,3400.,3400.,3400.,3400.,3400.,3400.,3400.,3400.,3400.,3400.,3400.,3400.,3400.,416.,420.,472.,520.,556.,576.,584.,588.,604.,592.,560.,576.,580.,580.,560.,464.,368.,300.,264.,268.,276.,280.,280.,276.,272.,272.,276.,272.,272.,280.,280.,272.,276.,276.,272.,268.,268.,272.,268.,272.,276.,280.,284.,280.,272.,272.,272.,268.,268.,272.,276.,272.,272.,276.,272.,280.,288.,280.,288.,308.,308.,324.,364.,392.,400.,3400.,3400.,3400.,3400.,3400.,3400.,3400.,3400.,3400.,3400.,3400.,3400.,3400.,3400.,3400.
3400.,3400.,3400.,3400.,3400.,3400.,3400.,3400.,3400.,3400.,3400.,3400.,3400.,3400.,3400.,3400.,3400.,596.,3400.,3400.,384.,432.,480.,484.,488.,492.,504.,548.,572.,552.,540.,548.,552.,576.,548.,444.,360.,300.,260.,256.,272.,280.,272.,272.,276.,272.,276.,272.,268.,276.,280.,272.,272.,276.,280.,276.,268.,264.,264.,272.,276.,276.,276.,272.,268.,272.,272.,276.,292.,284.,280.,284.,288.,284.,276.,284.,296.,308.,328.,348.,352.,404.,484.,3400.,3400.,3400.,3400.,3400.,3400.,3400.,3400.,3400.,3400.,3400.,3400.,3400.,3400.,3400.,3400.,3400.
3400.,3400.,3400.,3400.,3400.,3400.,3400.,3400.,3400.,3400.,3400.,3400.,3400.,3400.,3400.,3400.,3400.,3400.,3400.,476.,480.,548.,540.,492.,480.,484.,500.,500.,520.,564.,584.,556.,544.,568.,536.,460.,392.,332.,272.,256.,268.,276.,272.,272.,276.,272.,276.,276.,276.,276.,276.,272.,268.,276.,280.,276.,268.,264.,268.,272.,276.,284.,284.,280.,280.,284.,288.,308.,336.,316.,304.,324.,336.,316.,296.,300.,328.,356.,376.,384.,3400.,3400.,3400.,3400.,3400.,3400.,3400.,3400.,3400.,3400.,3400.,3400.,3400.,3400.,3400.,3400.,3400.,3400.,3400.,3400.
3400.,3400.,3400.,3400.,3400.,3400.,3400.,3400.,3400.,3400.,3400.,480.,3400.,3400.,3400.,3400.,3400.,3400.,3400.,3400.,3400.,604.,564.,496.,488.,3400.,520.,492.,484.,552.,576.,540.,520.,532.,584.,604.,496.,368.,288.,260.,268.,276.,272.,276.,280.,280.,280.,280.,280.,280.,272.,268.,272.,280.,280.,276.,276.,272.,276.,280.,288.,308.,320.,312.,304.,312.,324.,344.,348.,332.,336.,376.,412.,412.,392.,380.,392.,420.,3400.,3400.,3400.,3400.,3400.,3400.,3400.,3400.,3400.,3400.,3400.,3400.,3400.,3400.,3400.,3400.,3400.,3400.,3400.,3400.,3400.,3400.
3400.,3400.,3400.,3400.,3400.,3400.,3400.,3400.,3400.,3400.,3400.,3400.,676.,3400.,3400.,3400.,3400.,3400.,3400.,3400.,3400.,3400.,504.,476.,496.,516.,536.,3400.,464.,468.,492.,496.,488.,480.,600.,712.,568.,388.,300.,268.,272.,276.,280.,280.,284.,288.,292.,292.,292.,284.,276.,280.,292.,296.,296.,288.,292.,300.,296.,292.,312.,352.,360.,340.,344.,364.,376.,384.,384.,380.,396.,452.,488.,492.,516.,524.,488.,3400.,532.,3400.,3400.,3400.,3400.,3400.,3400.,3400.,3400.,3400.,3400.,3400.,3400.,3400.,3400.,3400.,3400.,3400.,3400.,3400.,3400.,3400.
3400.,3400.,3400.,3400.,3400.,3400.,3400.,3400.,3400.,3400.,3400.,3400.,3400.,3400.,3400.,3400.,3400.,3400.,3400.,3400.,3400.,500.,3400.,3400.,524.,3400.,544.,524.,476.,3400.,476.,516.,508.,3400.,516.,580.,508.,404.,320.,280.,280.,280.,288.,292.,296.,308.,320.,324.,320.,308.,300.,308.,320.,324.,320.,316.,328.,344.,336.,328.,368.,420.,420.,400.,424.,480.,452.,404.,448.,480.,488.,544.,544.,3400.,3400.,3400.,3400.,3400.,3400.,3400.,3400.,3400.,3400.,3400.,3400.,3400.,3400.,3400.,3400.,3400.,3400.,3400.,3400.,3400.,3400.,3400.,3400.,3400.,3400.,3400.
3400.,3400.,3400.,3400.,3400.,3400.,3400.,3400.,3400.,3400.,3400.,3400.,3400.,3400.,3400.,3400.,3400.,3400.,3400.,3400.,3400.,3400.,552.,3400.,3400.,536.,512.,496.,3400.,504.,496.,496.,496.,484.,476.,468.,456.,424.,348.,300.,292.,288.,292.,292.,296.,324.,344.,356.,348.,324.,308.,308.,320.,348.,368.,380.,396.,412.,416.,428.,460.,472.,472.,476.,496.,548.,476.,364.,444.,536.,548.,580.,564.,520.,544.,3400.,488.,452.,3400.,3400.,3400.,3400.,3400.,3400.,3400.,3400.,3400.,3400.,3400.,3400.,3400.,3400.,3400.,3400.,3400.,3400.,3400.,3400.,3400.,3400.
3400.,3400.,3400.,3400.,3400.,3400.,3400.,3400.,3400.,3400.,3400.,3400.,3400.,3400.,3400.,3400.,3400.,3400.,3400.,3400.,3400.,3400.,3400.,3400.,3400.,3400.,3400.,3400.,472.,3400.,3400.,3400.,3400.,480.,3400.,3400.,464.,424.,356.,320.,316.,304.,296.,284.,304.,336.,352.,368.,364.,348.,344.,344.,396.,464.,476.,460.,456.,476.,504.,516.,528.,524.,516.,520.,508.,528.,480.,3400.,3400.,492.,512.,540.,3400.,3400.,3400.,3400.,3400.,3400.,3400.,3400.,3400.,3400.,3400.,3400.,3400.,3400.,3400.,3400.,3400.,3400.,3400.,3400.,3400.,3400.,3400.,3400.,3400.,3400.,3400.,3400.
3400.,3400.,3400.,3400.,3400.,3400.,3400.,3400.,3400.,3400.,3400.,3400.,3400.,3400.,3400.,3400.,3400.,3400.,3400.,3400.,3400.,3400.,3400.,3400.,3400.,3400.,3400.,3400.,3400.,3400.,3400.,3400.,3400.,460.,432.,448.,476.,436.,384.,368.,380.,372.,372.,380.,384.,392.,408.,452.,472.,452.,460.,448.,488.,592.,572.,512.,496.,532.,580.,556.,556.,584.,564.,536.,520.,552.,556.,480.,460.,3400.,3400.,468.,3400.,3400.,384.,3400.,3400.,3400.,3400.,3400.,3400.,3400.,3400.,3400.,3400.,3400.,3400.,3400.,3400.,3400.,3400.,3400.,3400.,3400.,3400.,3400.,3400.,3400.,3400.,3400.
3400.,3400.,3400.,3400.,3400.,3400.,3400.,3400.,3400.,3400.,3400.,3400.,3400.,3400.,3400.,3400.,3400.,3400.,3400.,3400.,3400.,3400.,3400.,3400.,3400.,3400.,3400.,3400.,3400.,3400.,3400.,432.,396.,3400.,3400.,3400.,3400.,472.,460.,460.,448.,448.,508.,516.,348.,224.,404.,592.,596.,572.,3400.,3400.,3400.,540.,544.,472.,464.,536.,584.,536.,524.,576.,576.,520.,512.,588.,3400.,3400.,496.,3400.,3400.,3400.,3400.,3400.,3400.,3400.,3400.,3400.,3400.,3400.,3400.,3400.,3400.,3400.,3400.,3400.,3400.,3400.,3400.,3400.,3400.,3400.,3400.,3400.,3400.,3400.,3400.,3400.,3400.,3400.
3400.,3400.,3400.,3400.,3400.,3400.,3400.,3400.,3400.,3400.,3400.,3400.,3400.,3400.,3400.,3400.,3400.,3400.,3400.,3400.,3400.,3400.,3400.,3400.,3400.,3400.,3400.,3400.,3400.,3400.,3400.,3400.,3400.,3400.,3400.,3400.,3400.,3400.,3400.,3400.,3400.,3400.,568.,3400.,3400.,3400.,340.,612.,592.,3400.,3400.,400.,428.,492.,512.,440.,3400.,496.,540.,3400.,452.,528.,3400.,3400.,3400.,3400.,3400.,508.,3400.,3400.,3400.,3400.,3400.,3400.,3400.,3400.,3400.,3400.,3400.,3400.,3400.,3400.,3400.,3400.,3400.,3400.,3400.,3400.,3400.,3400.,3400.,3400.,3400.,3400.,3400.,3400.,3400.,3400.,3400.,3400.
3400.,3400.,3400.,3400.,3400.,3400.,3400.,3400.,3400.,3400.,3400.,3400.,3400.,3400.,3400.,3400.,3400.,3400.,3400.,3400.,3400.,3400.,3400.,3400.,3400.,3400.,3400.,908.,3400.,3400.,3400.,3400.,3400.,3400.,3400.,3400.,3400.,3400.,3400.,3400.,3400.,3400.,3400.,3400.,3400.,3400.,412.,3400.,3400.,3400.,3400.,300.,3400.,540.,3400.,496.,3400.,3400.,3400.,3400.,452.,3400.,3400.,3400.,3400.,3400.,3400.,3400.,3400.,3400.,3400.,3400.,3400.,3400.,3400.,3400.,3400.,3400.,3400.,3400.,3400.,3400.,3400.,3400.,3400.,3400.,3400.,3400.,3400.,3400.,3400.,3400.,3400.,3400.,3400.,3400.,3400.,3400.,3400.,3400.
3400.,3400.,3400.,3400.,3400.,3400.,3400.,3400.,3400.,3400.,3400.,3400.,3400.,3400.,3400.,3400.,3400.,3400.,3400.,3400.,3400.,3400.,3400.,3400.,3400.,3400.,3400.,3400.,3400.,3400.,3400.,3400.,3400.,3400.,3400.,3400.,3400.,3400.,3400.,3400.,3400.,3400.,3400.,3400.,380.,3400.,3400.,3400.,3400.,3400.,3400.,3400.,3400.,3400.,3400.,3400.,3400.,3400.,3400.,3400.,3400.,3400.,3400.,3400.,3400.,3400.,3400.,3400.,3400.,3400.,3400.,3400.,3400.,3400.,3400.,3400.,3400.,3400.,3400.,3400.,3400.,3400.,3400.,3400.,3400.,3400.,3400.,3400.,3400.,3400.,3400.,3400.,3400.,3400.,3400.,3400.,3400.,3400.,3400.,3400.
3400.,3400.,3400.,3400.,3400.,3400.,3400.,3400.,3400.,3400.,3400.,3400.,3400.,3400.,3400.,3400.,3400.,3400.,3400.,3400.,3400.,3400.,3400.,3400.,3400.,3400.,3400.,3400.,3400.,3400.,3400.,3400.,3400.,3400.,3400.,3400.,3400.,3400.,3400.,3400.,3400.,3400.,3400.,3400.,3400.,3400.,3400.,3400.,3400.,3400.,3400.,3400.,3400.,3400.,3400.,3400.,3400.,3400.,3400.,3400.,3400.,3400.,3400.,3400.,3400.,3400.,3400.,3400.,3400.,3400.,3400.,3400.,3400.,3400.,3400.,3400.,3400.,3400.,3400.,3400.,3400.,3400.,3400.,3400.,3400.,3400.,3400.,3400.,3400.,3400.,3400.,3400.,3400.,3400.,3400.,3400.,3400.,3400.,3400.,3400.
3400.,3400.,3400.,3400.,3400.,3400.,3400.,3400.,3400.,3400.,3400.,3400.,3400.,3400.,3400.,3400.,3400.,3400.,3400.,3400.,3400.,3400.,3400.,3400.,3400.,3400.,3400.,3400.,3400.,3400.,3400.,3400.,3400.,3400.,3400.,3400.,3400.,3400.,3400.,3400.,3400.,3400.,3400.,3400.,3400.,3400.,3400.,3400.,3400.,3400.,3400.,3400.,3400.,3400.,3400.,3400.,3400.,3400.,3400.,3400.,3400.,3400.,3400.,3400.,3400.,3400.,3400.,3400.,3400.,3400.,3400.,3400.,3400.,3400.,3400.,3400.,3400.,3400.,3400.,3400.,3400.,3400.,3400.,3400.,3400.,3400.,3400.,3400.,3400.,3400.,3400.,3400.,3400.,3400.,3400.,3400.,3400.,3400.,3400.,3400.
